4.601029990101532 28.0 0.0 
4.601029990101532 28.337392588066386 -1.8008942936350736 
4.601029990101532 28.56297332299703 -3.645183054257253 
4.601029990101532 28.67260362632423 -5.526191392981463 
4.601029990101532 28.66252496871236 -7.436897681700462 
4.601029990101532 28.529385768746298 -9.36995386855936 
4.601029990101532 28.270267307226465 -11.31770777071396 
4.601029990101532 27.882708515613597 -13.272227304356896 
4.601029990101532 27.364729502218175 -15.225326603612352 
4.601029990101532 26.714853671687397 -17.1685939655556 
4.601029990101532 25.932128318548905 -19.09342156069512 
4.601029990101532 25.016143545521004 -20.991036822524567 
4.601029990101532 23.96704938944316 -22.852535434306574 
4.601029990101532 22.78557102647535 -24.668915814540213 
4.601029990101532 21.473021937544708 -26.431114995586285 
4.601029990101532 20.031314919813614 -28.130045780662233 
4.601029990101532 18.462970835977483 -29.756635055680658 
4.601029990101532 16.771124999870786 -31.301863123951396 
4.601029990101532 14.959531104155076 -32.756803923643375 
4.601029990101532 13.032562603768879 -34.112665980151206 
4.601029990101532 10.995211477320115 -35.36083393817791 
4.601029990101532 8.853084297676594 -36.49291051147277 
4.601029990101532 6.612395552637261 -37.50075868179272 
4.601029990101532 4.279958166719212 -38.376543972831485 
4.601029990101532 1.863171185745072 -39.112776619620895 
4.601029990101532 -0.6299954029700708 -39.702353449292616 
4.601029990101532 -3.191018730592461 -40.13859928645139 
4.601029990101532 -5.810843990186837 -40.41530768469126 
4.425910488142239 -8.436662789983526 -40.32010409981659 
4.1847022518998225 -11.050901736727175 -39.971375935463065 
3.946637459883074 -13.653550779293642 -39.44934420945632 
3.7115550212242967 -16.232965669885523 -38.754327661852706 
3.4793068343152314 -18.777516364607337 -37.88741887307359 
3.2497563720130533 -21.275636809044244 -36.85048391664721 
3.0227774587695957 -23.71587492201293 -35.646158758981834 
2.798253208808297 -26.086942533452664 -34.27784238782068 
2.576075100175408 -28.377765036762895 -32.749686667655055 
2.3561421640130287 -30.577530520158266 -31.066582936607805 
2.1383602720107007 -32.67573814604097 -29.234145375170982 
1.9226415078928483 -34.66224555216485 -27.258691192695043 
1.7089036111451477 -36.52731505360944 -25.147217692672534 
1.497069483090583 -38.26165843039215 -22.907376292615773 
1.2870667469868506 -39.85648009198058 -20.54744358866866 
1.0788273550995946 -41.30351841707318 -18.076289568980435 
0.8722872367668242 -42.59508507481134 -15.503343093267905 
0.6673859823497843 -43.72410214208764 -12.838554768860126 
0.4640665587003385 -44.68413684081444 -10.092357365813186 
0.2622750523896752 -45.46943372890885 -7.275623925360462 
0.06196043746069939 -46.07494418931127 -4.399623726982037 
-0.13692563509681147 -46.49635307256088 -1.475976289694177 
-0.33442902857898354 -46.730102360269186 1.4833964072645094 
-0.5305932946243138 -46.77341172922577 4.466319290377815 
-0.7254598319408749 -46.62429590879482 7.460414942476888 
-0.9190680313211629 -46.28157873767288 10.45315552896561 
-1.1114554083638364 -45.74490383992583 13.431915684320261 
-1.3026577251512292 -45.01474185445559 16.384026138198834 
-1.4927091019844712 -44.09239416660706 19.296827856092627 
-1.6816421201503589 -42.9799931054583 22.157726466002305 
-1.8694879165835445 -41.68049858537946 24.954246740144256 
-2.056276271190874 -40.19769118563916 27.674086899201285 
-2.242035687520672 -38.536161677118855 30.305172506134568 
-2.426793467385737 -36.701297020500846 32.83570971707789 
-2.610575779984348 -34.69926287556217 35.254237658340145 
-2.793407726006454 -32.53698267636923 37.54967970104686 
-2.97531339716223 -30.222113342162633 39.71139340844767 
-3.156315931525672 -27.76301770848541 41.72921893539383 
-3.3364375650469786 -25.16873377757426 43.59352566493356 
-3.515699679552518 -22.448940901146887 45.29525687336087 
-3.6941228475203043 -19.613923022406514 46.82597222236707 
-3.8717268738915545 -16.67452911730143 48.177887885150966 
-4.048530835154311 -13.642130987753134 49.343914122414915 
-4.224553115913277 -10.528578571651268 50.31769013407569 
-4.399811443140333 -7.346152945851308 51.09361602320959 
-4.574322918282934 -4.107517209153948 51.66688172019045 
-4.7481040473914815 -0.8256654422370553 52.03349272712188 
-4.921170769412927 2.4861300492831817 52.19029255546024 
-5.0935384827849655 5.814372994118686 52.13498174312383 
-5.265222070453756 9.145398694862642 51.866133351330035 
-5.4362359234277235 12.465430619202554 51.38320485583937 
-5.60659396297065 15.76063780852105 50.68654636215459 
-5.7763096615287095 19.017192864933396 49.777405089462874 
-5.945396062478575 22.221330274127936 48.65792608365591 
-6.113865798776491 25.359404818702025 47.331149135552955 
-6.281731110582221 28.417949835045924 45.80100189641727 
-6.449003861925586 31.38373506622029 44.072289198934236 
-6.615695556478477 34.24382386372059 42.15067860793569 
-6.781817352490121 36.98562949251232 40.04268224124897 
-6.947380076939144 39.59697029626599 37.75563491704502 
-7.11239423895199 42.066123483301496 35.297668699896214 
-7.2768700425336155 44.38187729836931 32.677683933357486 
-7.440817398652782 46.53358135102551 29.9053168621921 
-7.6042459367216555 48.511194877987045 26.99090396230555 
-7.767165015506237 50.30533272445466 23.945443110965755 
-7.929583733501571 51.90730883793787 20.780551743909733 
-8.091510938803578 53.30917707757716 17.50842215940602 
-8.252955238506937 54.503769152295725 14.141774142198138 
-8.413925007656387 55.48472951228835 10.693805092440439 
-8.5744283977772 56.24654703032498 7.178137856199604 
-8.734473345008572 56.784583322061444 3.608766464780954 
-8.894067577862387 57.09509756796391 2.6849255017696806e-14 
