16.60102999010153 28.0 0.0 
16.60102999010153 28.337392588066386 -1.8008942936350736 
16.60102999010153 28.56297332299703 -3.645183054257253 
16.60102999010153 28.67260362632423 -5.526191392981463 
16.60102999010153 28.66252496871236 -7.436897681700462 
16.60102999010153 28.529385768746298 -9.36995386855936 
16.60102999010153 28.270267307226465 -11.31770777071396 
16.60102999010153 27.882708515613597 -13.272227304356896 
16.60102999010153 27.364729502218175 -15.225326603612352 
16.60102999010153 26.714853671687397 -17.1685939655556 
16.60102999010153 25.932128318548905 -19.09342156069512 
16.60102999010153 25.016143545521004 -20.991036822524567 
16.60102999010153 23.96704938944316 -22.852535434306574 
16.60102999010153 22.78557102647535 -24.668915814540213 
16.60102999010153 21.473021937544708 -26.431114995586285 
16.60102999010153 20.031314919813614 -28.130045780662233 
16.60102999010153 18.462970835977483 -29.756635055680658 
16.60102999010153 16.771124999870786 -31.301863123951396 
16.60102999010153 14.959531104155076 -32.756803923643375 
16.60102999010153 13.032562603768879 -34.112665980151206 
16.60102999010153 10.995211477320115 -35.36083393817791 
16.60102999010153 8.853084297676594 -36.49291051147277 
16.60102999010153 6.612395552637261 -37.50075868179272 
16.60102999010153 4.279958166719212 -38.376543972831485 
16.60102999010153 1.863171185745072 -39.112776619620895 
16.60102999010153 -0.6299954029700708 -39.702353449292616 
16.60102999010153 -3.191018730592461 -40.13859928645139 
16.60102999010153 -5.810843990186837 -40.41530768469126 
16.60102999010153 -8.436662789983526 -40.32010409981659 
16.60102999010153 -11.050901736727175 -39.971375935463065 
16.60102999010153 -13.653550779293642 -39.44934420945632 
16.60102999010153 -16.232965669885523 -38.754327661852706 
16.60102999010153 -18.777516364607337 -37.88741887307359 
16.60102999010153 -21.275636809044244 -36.85048391664721 
16.601029990101527 -23.71587492201293 -35.646158758981834 
16.601029990101527 -26.086942533452664 -34.27784238782068 
16.601029990101527 -28.377765036762895 -32.749686667655055 
16.601029990101527 -30.577530520158266 -31.066582936607805 
16.601029990101527 -32.67573814604097 -29.234145375170982 
16.601029990101527 -34.66224555216485 -27.258691192695043 
16.601029990101527 -36.52731505360944 -25.147217692672534 
16.601029990101527 -38.26165843039215 -22.907376292615773 
16.601029990101527 -39.85648009198058 -20.54744358866866 
16.601029990101527 -41.30351841707318 -18.076289568980435 
16.601029990101527 -42.59508507481134 -15.503343093267905 
16.601029990101527 -43.72410214208764 -12.838554768860126 
16.601029990101527 -44.68413684081444 -10.092357365813186 
16.601029990101527 -45.46943372890885 -7.275623925360462 
16.601029990101527 -46.07494418931127 -4.399623726982037 
16.601029990101527 -46.49635307256088 -1.475976289694177 
16.601029990101527 -46.730102360269186 1.4833964072645094 
16.601029990101527 -46.77341172922577 4.466319290377815 
16.601029990101527 -46.62429590879482 7.460414942476888 
16.601029990101527 -46.28157873767288 10.45315552896561 
16.601029990101527 -45.74490383992583 13.431915684320261 
16.601029990101527 -45.01474185445559 16.384026138198834 
16.601029990101527 -44.09239416660706 19.296827856092627 
16.601029990101527 -42.9799931054583 22.157726466002305 
16.601029990101527 -41.68049858537946 24.954246740144256 
16.601029990101527 -40.19769118563916 27.674086899201285 
16.601029990101527 -38.536161677118855 30.305172506134568 
16.601029990101527 -36.701297020500846 32.83570971707789 
16.601029990101527 -34.69926287556217 35.254237658340145 
16.601029990101527 -32.53698267636923 37.54967970104686 
16.601029990101527 -30.222113342162633 39.71139340844767 
16.601029990101527 -27.76301770848541 41.72921893539383 
16.601029990101527 -25.16873377757426 43.59352566493356 
16.601029990101527 -22.448940901146887 45.29525687336087 
16.601029990101527 -19.613923022406514 46.82597222236707 
16.601029990101527 -16.67452911730143 48.177887885150966 
16.601029990101527 -13.642130987753134 49.343914122414915 
16.601029990101527 -10.528578571651268 50.31769013407569 
16.601029990101527 -7.346152945851308 51.09361602320959 
16.601029990101527 -4.107517209153948 51.66688172019045 
16.601029990101527 -0.8256654422370553 52.03349272712188 
16.601029990101527 2.4861300492831817 52.19029255546024 
16.601029990101527 5.814372994118686 52.13498174312383 
16.601029990101527 9.145398694862642 51.866133351330035 
16.601029990101527 12.465430619202554 51.38320485583937 
16.601029990101527 15.76063780852105 50.68654636215459 
16.601029990101527 19.017192864933396 49.777405089462874 
16.601029990101527 22.221330274127936 48.65792608365591 
16.601029990101527 25.359404818702025 47.331149135552955 
16.601029990101527 28.417949835045924 45.80100189641727 
16.601029990101527 31.38373506622029 44.072289198934236 
16.601029990101527 34.24382386372059 42.15067860793569 
16.601029990101527 36.98562949251232 40.04268224124897 
16.601029990101527 39.59697029626599 37.75563491704502 
16.601029990101527 42.066123483301496 35.297668699896214 
16.601029990101527 44.38187729836931 32.677683933357486 
16.601029990101527 46.53358135102551 29.9053168621921 
16.601029990101527 48.511194877987045 26.99090396230555 
16.601029990101527 50.30533272445466 23.945443110965755 
16.601029990101527 51.90730883793787 20.780551743909733 
16.601029990101527 53.30917707757716 17.50842215940602 
16.601029990101527 54.503769152295725 14.141774142198138 
16.601029990101527 55.48472951228835 10.693805092440439 
16.601029990101527 56.24654703032498 7.178137856199604 
16.601029990101527 56.784583322061444 3.608766464780954 
16.601029990101527 57.09509756796391 2.6849255017696806e-14 
