4.601029990101532 28.0 0.0 
4.601029990101532 27.97991736581174 -1.778176074734954 
4.601029990101532 27.846876927468145 -3.5537954239612524 
4.601029990101532 27.601123017602628 -5.319680432385349 
4.601029990101532 27.243356177482895 -7.068674257387465 
4.601029990101532 26.7747314999721 -8.793669833321 
4.601029990101532 26.196855128017173 -10.48763874881506 
4.601029990101532 25.511778918134716 -12.143659879755871 
4.601029990101532 24.721993285828827 -13.754947661315077 
4.601029990101532 23.83041825729055 -15.314879883560383 
4.601029990101532 22.840392759062755 -16.81702489682253 
4.601029990101532 21.75566218457898 -18.255168115097717 
4.601029990101532 20.580364283569626 -19.6233377083277 
4.601029990101532 19.31901342724489 -20.915829377412674 
4.601029990101532 17.976483308882393 -22.127230109263177 
4.601029990101532 16.557988145941483 -23.252440813073214 
4.601029990101532 15.069062456067458 -24.286697743284297 
4.601029990101532 13.515539485312775 -25.2255926193908 
4.601029990101532 11.903528372563146 -26.065091357794923 
4.601029990101532 10.239390139490428 -26.801551336333425 
4.601029990101532 8.529712600339531 -27.43173711784794 
4.601029990101532 6.781284290471164 -27.952834565233506 
4.601029990101532 5.001067516807592 -28.36246328675159 
4.601029990101532 3.1961706371455114 -28.65868735700999 
4.601029990101532 1.373819678692772 -28.840024265865754 
4.601029990101532 -0.4586705908608201 -28.905452054572024 
4.601029990101532 -2.2939260239274084 -28.85441460573622 
4.601029990101532 -4.124542767411204 -28.68682506105831 
4.425910488142239 -5.943117131491718 -28.403067348341576 
4.1847022518998225 -7.742275532303198 -28.003995806887044 
3.946637459883074 -9.514704387415899 -27.490932908063087 
3.7115550212242967 -11.253179842916216 -26.865665075555263 
3.4793068343152314 -12.950597211266569 -26.1304366175146 
3.2497563720130533 -14.600000000000003 -25.287941790505606 
3.0227774587695957 -16.194608412667368 -24.341315022776588 
2.798253208808297 -17.72784720530261 -23.294119331902532 
2.576075100175408 -19.193372783996356 -22.150332979255715 
2.3561421640130287 -20.585099431963688 -20.914334411008806 
2.1383602720107007 -21.897224557745812 -19.590885542442322 
1.9226415078928483 -23.12425285988782 -18.18511344918071 
1.7089036111451477 -24.261019307569615 -16.702490535594343 
1.497069483090583 -25.302710841220595 -15.14881325694664 
1.2870667469868506 -26.24488670210174 -13.530179477914809 
1.0788273550995946 -27.083497305173548 -11.85296455583916 
0.8722872367668242 -27.81490157526289 -10.123796242439797 
0.6673859823497843 -28.435882672575104 -8.349528502755101 
0.4640665587003385 -28.94366203994517 -6.537214354684264 
0.2622750523896752 -29.335911710858696 -4.6940778367355245 
0.06196043746069939 -29.61076482417393 -2.8274852153753223 
-0.13692563509681147 -29.76682429861195 -0.9449155467242741 
-0.33442902857898354 -29.803169627425884 0.9460692897605636 
-0.5305932946243138 -29.719361761181904 2.8378549655539675 
-0.7254598319408749 -29.51544605425441 4.722805363276143 
-0.9190680313211629 -29.191953258425094 6.59329339939356 
-1.1114554083638364 -28.749898554848937 8.441731884994121 
-1.3026577251512292 -28.190778623577252 10.260604299770065 
-1.4927091019844712 -27.51656675777781 12.042495354395012 
-1.6816421201503589 -26.7297060377317 13.780121217038849 
-1.8694879165835445 -25.83310058758404 15.466359280828376 
-2.056276271190874 -24.83010494564841 17.094277350626793 
-2.242035687520672 -23.724511586782317 18.657162129567347 
-2.426793467385737 -22.520536642929176 20.14854688832866 
-2.610575779984348 -21.22280387533306 21.562238203171415 
-2.793407726006454 -19.836326959142635 22.89234165225808 
-2.97531339716223 -18.366490148102308 24.133286363735067 
-3.156315931525672 -16.819027393752823 25.279848313455776 
-3.3364375650469786 -15.200000000000003 26.32717227504693 
-3.515699679552518 -13.515772900037547 27.270792330249026 
-3.6941228475203043 -11.77298964839425 28.10665085307779 
-3.8717268738915545 -9.978546226302438 28.831115887331155 
-4.048530835154311 -8.139563763622874 29.4409968432855 
-4.224553115913277 -6.2633602851936505 29.93355844605923 
-4.399811443140333 -4.3574215936765865 30.30653287504529 
-4.574322918282934 -2.429371404737201 30.558130040999544 
-4.7481040473914815 -0.48694085369373125 30.687045954790925 
-4.921170769412927 1.4620625044022746 30.692469149441518 
-5.0935384827849655 3.409786076954729 30.574085124880774 
-5.265222070453756 5.348363872141456 30.33207879277601 
-5.4362359234277235 7.269948265890707 29.967134906849576 
-5.60659396297065 9.166741769225661 29.48043647221886 
-5.7763096615287095 11.031028667385113 28.873661135466946 
-5.945396062478575 12.855206402349294 28.148975565334364 
-6.113865798776491 14.631816571139115 27.309027842085094 
-6.281731110582221 16.353575413518506 26.35693788170675 
-6.449003861925586 18.01340366450194 25.29628592912679 
-6.615695556478477 19.60445564935518 24.131099162525516 
-6.781817352490121 21.12014750156019 22.865836458576307 
-6.947380076939144 22.554184387492555 21.505371376006178 
-7.11239423895199 23.90058662531211 20.05497342222003 
-7.2768700425336155 25.153714589788336 18.520287674834048 
-7.440817398652782 26.308292299447842 16.90731283679324 
-7.6042459367216555 27.35942958753035 15.222377810272864 
-7.767165015506237 28.302642763747908 13.472116880758769 
-7.929583733501571 29.133873679740752 11.663443608540467 
-8.091510938803578 29.849507117388242 9.803523530308834 
-8.252955238506937 30.44638642573993 7.899745778604848 
-8.413925007656387 30.921827339254683 5.959693731495094 
-8.5744283977772 31.273629917247256 3.9911148090342072 
-8.734473345008572 31.500088551912565 2.0018895367963006 
-8.894067577862387 31.599999999999998 1.486005795067206e-14 
