16.60102999010153 28.0 0.0 
16.60102999010153 27.97991736581174 -1.778176074734954 
16.60102999010153 27.846876927468145 -3.5537954239612524 
16.60102999010153 27.601123017602628 -5.319680432385349 
16.60102999010153 27.243356177482895 -7.068674257387465 
16.60102999010153 26.7747314999721 -8.793669833321 
16.60102999010153 26.196855128017173 -10.48763874881506 
16.60102999010153 25.511778918134716 -12.143659879755871 
16.60102999010153 24.721993285828827 -13.754947661315077 
16.60102999010153 23.83041825729055 -15.314879883560383 
16.60102999010153 22.840392759062755 -16.81702489682253 
16.60102999010153 21.75566218457898 -18.255168115097717 
16.60102999010153 20.580364283569626 -19.6233377083277 
16.60102999010153 19.31901342724489 -20.915829377412674 
16.60102999010153 17.976483308882393 -22.127230109263177 
16.60102999010153 16.557988145941483 -23.252440813073214 
16.60102999010153 15.069062456067458 -24.286697743284297 
16.60102999010153 13.515539485312775 -25.2255926193908 
16.60102999010153 11.903528372563146 -26.065091357794923 
16.60102999010153 10.239390139490428 -26.801551336333425 
16.60102999010153 8.529712600339531 -27.43173711784794 
16.60102999010153 6.781284290471164 -27.952834565233506 
16.60102999010153 5.001067516807592 -28.36246328675159 
16.60102999010153 3.1961706371455114 -28.65868735700999 
16.60102999010153 1.373819678692772 -28.840024265865754 
16.60102999010153 -0.4586705908608201 -28.905452054572024 
16.60102999010153 -2.2939260239274084 -28.85441460573622 
16.60102999010153 -4.124542767411204 -28.68682506105831 
16.60102999010153 -5.943117131491718 -28.403067348341576 
16.60102999010153 -7.742275532303198 -28.003995806887044 
16.60102999010153 -9.514704387415899 -27.490932908063087 
16.60102999010153 -11.253179842916216 -26.865665075555263 
16.60102999010153 -12.950597211266569 -26.1304366175146 
16.60102999010153 -14.600000000000003 -25.287941790505606 
16.601029990101527 -16.194608412667368 -24.341315022776588 
16.601029990101527 -17.72784720530261 -23.294119331902532 
16.601029990101527 -19.193372783996356 -22.150332979255715 
16.601029990101527 -20.585099431963688 -20.914334411008806 
16.601029990101527 -21.897224557745812 -19.590885542442322 
16.601029990101527 -23.12425285988782 -18.18511344918071 
16.601029990101527 -24.261019307569615 -16.702490535594343 
16.601029990101527 -25.302710841220595 -15.14881325694664 
16.601029990101527 -26.24488670210174 -13.530179477914809 
16.601029990101527 -27.083497305173548 -11.85296455583916 
16.601029990101527 -27.81490157526289 -10.123796242439797 
16.601029990101527 -28.435882672575104 -8.349528502755101 
16.601029990101527 -28.94366203994517 -6.537214354684264 
16.601029990101527 -29.335911710858696 -4.6940778367355245 
16.601029990101527 -29.61076482417393 -2.8274852153753223 
16.601029990101527 -29.76682429861195 -0.9449155467242741 
16.601029990101527 -29.803169627425884 0.9460692897605636 
16.601029990101527 -29.719361761181904 2.8378549655539675 
16.601029990101527 -29.51544605425441 4.722805363276143 
16.601029990101527 -29.191953258425094 6.59329339939356 
16.601029990101527 -28.749898554848937 8.441731884994121 
16.601029990101527 -28.190778623577252 10.260604299770065 
16.601029990101527 -27.51656675777781 12.042495354395012 
16.601029990101527 -26.7297060377317 13.780121217038849 
16.601029990101527 -25.83310058758404 15.466359280828376 
16.601029990101527 -24.83010494564841 17.094277350626793 
16.601029990101527 -23.724511586782317 18.657162129567347 
16.601029990101527 -22.520536642929176 20.14854688832866 
16.601029990101527 -21.22280387533306 21.562238203171415 
16.601029990101527 -19.836326959142635 22.89234165225808 
16.601029990101527 -18.366490148102308 24.133286363735067 
16.601029990101527 -16.819027393752823 25.279848313455776 
16.601029990101527 -15.200000000000003 26.32717227504693 
16.601029990101527 -13.515772900037547 27.270792330249026 
16.601029990101527 -11.77298964839425 28.10665085307779 
16.601029990101527 -9.978546226302438 28.831115887331155 
16.601029990101527 -8.139563763622874 29.4409968432855 
16.601029990101527 -6.2633602851936505 29.93355844605923 
16.601029990101527 -4.3574215936765865 30.30653287504529 
16.601029990101527 -2.429371404737201 30.558130040999544 
16.601029990101527 -0.48694085369373125 30.687045954790925 
16.601029990101527 1.4620625044022746 30.692469149441518 
16.601029990101527 3.409786076954729 30.574085124880774 
16.601029990101527 5.348363872141456 30.33207879277601 
16.601029990101527 7.269948265890707 29.967134906849576 
16.601029990101527 9.166741769225661 29.48043647221886 
16.601029990101527 11.031028667385113 28.873661135466946 
16.601029990101527 12.855206402349294 28.148975565334364 
16.601029990101527 14.631816571139115 27.309027842085094 
16.601029990101527 16.353575413518506 26.35693788170675 
16.601029990101527 18.01340366450194 25.29628592912679 
16.601029990101527 19.60445564935518 24.131099162525516 
16.601029990101527 21.12014750156019 22.865836458576307 
16.601029990101527 22.554184387492555 21.505371376006178 
16.601029990101527 23.90058662531211 20.05497342222003 
16.601029990101527 25.153714589788336 18.520287674834048 
16.601029990101527 26.308292299447842 16.90731283679324 
16.601029990101527 27.35942958753035 15.222377810272864 
16.601029990101527 28.302642763747908 13.472116880758769 
16.601029990101527 29.133873679740752 11.663443608540467 
16.601029990101527 29.849507117388242 9.803523530308834 
16.601029990101527 30.44638642573993 7.899745778604848 
16.601029990101527 30.921827339254683 5.959693731495094 
16.601029990101527 31.273629917247256 3.9911148090342072 
16.601029990101527 31.500088551912565 2.0018895367963006 
16.601029990101527 31.599999999999998 1.486005795067206e-14 
